x,y,z,intensity,frame,sigma,sigmaZ
794.5494390757913,36.1435138343513,1253.6072454999260,1522.9987792968750,1,12.6211805343628,22.0658416748047
310.9636216064565,241.8582596887749,1346.7134931283681,1199.1973876953125,1,1.6874932050705,29.5411186218262
308.0056194579550,1889.8087010921506,682.5178164805508,2126.4108886718750,1,2.8341372013092,1.1710926294327
628.5181312517510,1198.4323046208681,359.2394470324425,1164.2231445312500,1,39.4340744018555,65.7118225097656
102.9720212327212,238.7449838229849,401.3493146761280,532.7951660156250,1,9.6715068817139,19.8265762329102
1770.6715332439146,1912.1750933107951,466.2041218458144,2159.2485351562500,1,2.6644656658173,67.0023651123047
1357.3456562789586,1933.8728960486012,1064.3562914900865,1547.3525390625000,1,27.8895702362061,61.2687644958496
197.3586862919044,1641.6367058193018,509.1849902560188,1189.1872558593750,1,13.7229518890381,44.8925285339355
324.2659629394643,1280.8969618059459,931.4225480628140,2019.9011230468750,1,1.4396104812622,21.0591793060303
967.2217917867238,879.9735816656133,539.0616675978904,1734.9802246093750,1,15.5709505081177,26.5417823791504
947.0509881324956,1662.3783982955524,386.0121860489845,541.4624633789063,1,45.2173347473145,83.0147094726563
288.3603583623089,1947.1093837490059,373.5053737280574,1546.4980468750000,1,1.7972068786621,55.8349533081055
1663.1938729634671,1519.2106953703433,591.0308169075055,1416.9163818359375,1,7.7993516921997,78.2320861816406
903.1049720430019,1307.3179900047071,959.5584846470281,672.0206298828125,1,20.6496467590332,4.8434758186340
1761.7855509830604,1972.2563219614501,1408.4186143522627,740.0158691406250,1,6.4309492111206,3.6365764141083
1382.1693322429364,735.5663969554560,802.1843978131561,737.9406127929688,1,0.6779407262802,58.3615379333496
1861.5983703052934,604.9868166003555,189.0698987193074,2032.0474853515625,1,3.1098806858063,4.5652718544006
1013.9770011719853,1835.8007991355398,742.5094148367967,1605.9479980468750,1,2.6607208251953,132.7911071777344
401.8531104689995,1021.0566254030007,424.3922124609764,1557.7897949218750,1,10.4292964935303,22.3280582427979
1163.8365666171867,1260.9499705214700,1309.7947666484295,1555.2872314453125,1,14.9466762542725,23.6641178131104
772.5072325430998,235.0544361198025,54.1322822665351,1381.6981201171875,1,6.5614547729492,0.0423362255096
216.8286879353482,1983.5275745832794,441.9601706414464,1312.2379150390625,1,3.5699386596680,0.5433282852173
327.1611592533758,86.7810464241328,517.2101378110734,1692.4375000000000,1,84.1996536254883,9.5830364227295
1310.9149923583341,192.0023472135682,247.0839633616770,1832.2122802734375,1,6.6775240898132,0.5629813075066
1297.0186709550380,659.9897218637357,539.7466736975862,1184.3653564453125,1,18.6506919860840,0.1348599940538
1036.2619265555124,68.8446361153943,821.8188786970110,1976.4427490234375,1,17.4225215911865,13.2363119125366
33.0417173730035,441.2973996396930,974.3763178154567,1565.1142578125000,1,3.8280885219574,13.4180994033813
1543.4483724632842,1049.1477605128696,630.7302050337711,372.4509582519531,1,6.1999440193176,40.1693840026855
1351.5650597551321,595.1817380552014,1498.9185790090451,1826.5969238281250,1,26.7731399536133,106.6134796142578
1851.4773249333491,184.9505589934798,520.9003063608806,1045.5672607421875,1,1.0528305768967,10.8536949157715
430.9974713454017,572.3317937239325,1390.6265379564229,2015.2012939453125,1,9.6272449493408,1.5889948606491
787.6639983588636,677.7018527330887,788.0883068563778,2116.4006347656250,1,1.5688459873199,10.6000394821167
5.0917321598051,1122.1273833841726,1091.6770731250449,1113.8676757812500,1,6.2095413208008,6.3547520637512
1696.4663047486672,1726.8711015350029,869.4738145611036,2224.8635253906250,1,12.4085063934326,27.2006015777588
1783.1270032552477,1053.3130976751158,182.4440535491476,1560.9637451171875,1,6.1222076416016,37.2007446289063
79.9008144354481,325.0263033643761,1112.6022297543914,1607.1688232421875,1,19.8682956695557,37.2079772949219
1642.0059053745963,551.8272756248488,1193.8631039871184,2120.0629882812500,1,0.7140335440636,27.4569454193115
1012.8405397778806,371.9133186460273,605.9892964562270,1180.7031250000000,1,7.6723513603210,32.9106979370117
1174.8198843080038,1518.9958092499339,528.7267590486438,1539.9060058593750,1,13.9139690399170,104.6046295166016
98.3084146143848,452.6279771470385,576.8938906379440,822.1106567382813,1,2.8871228694916,47.8524284362793
443.6579767764387,1531.5475675654025,260.3732880341615,1945.8631591796875,1,14.8908977508545,24.7749519348145
1943.6404527732377,474.6187633220555,1444.9606145420405,513.9347534179688,1,8.7194423675537,108.2022628784180
1842.4864647889433,925.6929220379318,505.3860742160691,1439.6221923828125,1,24.4212055206299,22.5188446044922
1861.9767890377584,1822.8513190733117,972.5960375343514,427.9946289062500,1,8.9471187591553,79.0046997070313
1983.1155535138423,360.8642794463605,1209.3998883955619,2201.0590820312500,1,15.7780084609985,1.9177563190460
742.2231002249536,509.6389990401865,862.8841386384992,1564.6870117187500,1,10.4765701293945,64.0035018920898
1479.0359358304952,40.4737406907372,602.9336314073907,1733.2712402343750,1,18.2317333221436,1.7372487783432
988.4747946915234,1134.7992051697654,1385.4198873892869,526.0200805664063,1,2.9344317913055,10.7402877807617
872.7024666821360,246.2411225253028,330.1381568200671,1020.8471679687500,1,30.1838932037354,5.4795570373535
1824.7247387909892,451.7298189914936,961.2417015075380,1611.5024414062500,1,35.8899269104004,21.0483837127686
949.0006155681863,814.9225532232950,838.9629433185751,531.0861206054688,1,8.2142276763916,48.5941123962402
1240.5019955413416,1133.8699399046632,137.9264671267544,1946.4735107421875,1,17.6824474334717,67.0692062377930
97.6420967067922,321.7160607595188,197.5320899092824,1430.7717285156250,1,25.8980140686035,14.0869684219360
1074.9616483708078,1762.9799786384431,711.3556680197908,2028.3242187500000,1,5.9324932098389,20.3258914947510
292.1443496983514,10.0164085294838,551.8919599437928,1361.0676269531250,1,0.2956922650337,6.6654882431030
572.3612373698944,946.5635023135558,1453.0868179569898,2157.5395507812500,1,14.2734994888306,17.4796695709229
125.3101607437564,635.9557616520045,1457.8714966819421,1870.9708251953125,1,7.1634531021118,44.1888656616211
1982.8596798110584,1801.5818791173238,676.7597944314132,1960.0238037109375,1,11.5159339904785,164.0401611328125
1183.5875114520561,1723.7405706616016,914.2713577444194,390.3958129882813,1,25.6252651214600,7.6015233993530
1964.1003123109558,1405.6017633091765,823.3345327235846,849.3331298828125,1,7.5179610252380,1.5970135927200
510.1940725072373,1236.5405523914660,877.5295349658929,1693.9635009765625,1,47.6492156982422,7.5330376625061
1540.5069104937202,924.3349252446924,288.3805603667788,1081.0906982421875,1,13.6836824417114,13.4832067489624
1131.6005214386457,1286.2223395782698,23.8793912251367,402.0538940429688,1,4.9403481483459,52.3691444396973
1235.1706111516605,795.7954001789232,889.9140850805533,1256.5721435546875,1,3.0799221992493,54.9503860473633
1765.0613522664326,139.2364895911210,808.8331438042854,1446.5804443359375,1,3.3428974151611,92.6407394409180
1704.6727781978066,364.3927176510459,2.9089910070917,1997.5616455078125,1,1.2085255384445,33.5573730468750
1781.4389994703838,1127.7330993073938,934.9845786679256,1836.3627929687500,1,4.2856311798096,52.7357521057129
124.6949715945437,1480.1692351873160,38.4897016610487,2281.7500000000000,1,32.3875617980957,67.3162002563477
362.9053136198038,1269.6861539945271,168.4311946302363,750.6362915039063,1,10.0584564208984,49.5869102478027
1431.7833695529157,348.4993268315246,601.6064562565151,1857.0544433593750,1,0.7848242521286,3.4519474506378
1342.9603280479673,305.2508001464206,931.2034633082560,2212.4118652343750,1,8.7988948822021,61.6825866699219
774.9523663958319,473.0402993661868,1041.0437328355149,1481.6156005859375,1,3.6516005992889,9.0196809768677
1764.5622581654068,1780.2778506946552,1072.7532027015748,1592.8861083984375,1,17.0763282775879,3.2171378135681
270.1257931671781,847.7204830121443,631.6403031579413,1727.7167968750000,1,10.0837259292603,26.7023315429688
694.3630289653129,814.5818701527089,1136.9180620576285,2240.6110839843750,1,6.7655344009399,6.2957549095154
1626.0742640056503,1862.5823884647041,259.2243404012695,1979.7998046875000,1,10.3312702178955,16.2048778533936
1318.9169928261083,618.7096759075168,321.3562231500331,1837.8277587890625,1,0.0020191622898,57.1022262573242
882.0202300541920,93.5381599552851,1163.9545157548569,1309.6132812500000,1,22.2993125915527,52.0604858398438
571.8334013398195,1051.3504078692936,180.4830496985830,1939.2712402343750,1,26.7527618408203,49.2019348144531
1773.0247156793462,617.2612661904149,1020.9200775224473,1367.1712646484375,1,2.7511165142059,57.3033943176270
875.0363090184110,235.0236706646484,1048.5267044593954,776.2108154296875,1,0.1014659926295,36.2035484313965
1737.2815866614151,924.4090660873753,406.0524502051781,1540.2111816406250,1,13.4490299224854,17.1720561981201
851.1348107309426,1301.7159692320668,1443.4326508265824,1067.1132812500000,1,12.0105371475220,89.6395034790039
958.6373933982236,208.9909766452556,672.0247633916106,1653.5570068359375,1,46.7240600585938,82.7475509643555
1391.2518353851558,326.3085898209157,1176.2554832562266,1520.5572509765625,1,1.9478017091751,47.3205833435059
932.7961687507756,1718.7418309696770,863.4907384120646,657.1886596679688,1,17.0574340820313,13.8300638198853
778.8380642914063,472.2486005000619,525.4584021131204,1185.4029541015625,1,0.2672493755817,5.5024609565735
524.6344750585646,1117.0525983530406,297.8218765031713,331.9833984375000,1,5.6850333213806,30.8194713592529
1949.2697411609208,1362.1135296974019,686.9049559581563,2061.0400390625000,1,5.1284422874451,16.3178443908691
1281.1678958628456,1424.0844116184521,732.5755014727235,2280.9565429687500,1,8.6768026351929,43.8326721191406
1353.1023667249235,401.1472905329341,790.3566075961508,1660.8813476562500,1,9.2370119094849,104.8283920288086
201.9710254989999,596.3672609486114,834.7857222931891,1619.6813964843750,1,8.7029581069946,37.6205673217773
1740.6429866089120,1257.0907431117848,143.1627604233575,1794.0640869140625,1,2.2052059173584,39.9047813415527
378.3403798588702,474.3320944270668,422.1858899998773,1078.4661865234375,1,4.9577984809875,26.5657405853271
654.8118015405913,832.8054435714242,1403.9262830336402,922.8828125000000,1,10.5431146621704,50.0457916259766
1601.6465584710841,339.5632795468622,889.6070337193179,1936.5245361328125,1,2.0220580101013,97.0605621337891
1767.4521051462580,780.3273480492504,1392.9692339452031,1336.1033935546875,1,0.1511285752058,90.5695953369141
873.5074821572614,21.9530531234750,506.7130300642196,572.5302734375000,1,1.3738607168198,37.8064384460449
1847.7205198718682,706.5002764923279,169.6345616251720,1286.9075927734375,1,61.4946594238281,0.9550816416740
243.0801170512740,777.3994154428951,1460.7735578273423,684.4721679687500,1,13.1946229934692,25.2356395721436
396.6811057717721,647.5512882269898,969.2416190781453,434.9528503417969,1,0.9079091548920,17.0240249633789
361.6897551570267,548.6571241042628,1279.6595843852197,657.4328002929688,1,27.9463539123535,25.8651695251465
1361.2653294026941,282.9402501324957,312.3917889565199,657.0055541992188,1,25.0263595581055,8.2867021560669
1804.2393687620856,1170.0264076294270,712.7652773738918,390.8230895996094,1,13.8057584762573,19.2674942016602
82.2839915472854,1057.3953558234928,1131.6342484444688,1791.3785400390625,1,48.6583213806152,12.0114164352417
192.2307142521066,1571.2721974673077,85.5082628568129,1384.4447021484375,1,22.0186939239502,9.9392910003662
1909.7403540833436,285.5427102534344,566.6533803907648,1419.6020507812500,1,0.5851876735687,116.7035827636719
322.2544574608287,1.4581222149947,704.6011982513984,1276.4702148437500,1,21.8526821136475,44.8404998779297
1338.7402154945332,1918.1965763303931,604.0327596028305,1603.0793457031250,1,1.9265592098236,22.2250118255615
1079.3662623192729,785.1826979829444,721.5757258602628,579.1223144531250,1,12.0993204116821,0.7930434346199
68.5217954530275,928.3853269034205,1356.7119511047545,1840.9405517578125,1,12.5611944198608,7.5578522682190
248.1607422884472,28.7737734344398,706.5844216420419,312.6957092285156,1,12.9718885421753,23.6233158111572
1394.4468357250271,753.4091517767587,759.5324142538306,644.2487792968750,1,30.3912582397461,2.4007139205933
1843.6351236605678,882.8952301264993,137.5075737693866,1853.4532470703125,1,1.6599564552307,21.9214954376221
1570.2303708929401,1009.6058474752714,607.4191470326380,2281.6279296875000,1,1.2235114574432,49.9577522277832
1262.1375411785179,686.9596430229094,699.0728496015956,1829.2824707031250,1,12.9621782302856,71.9947891235352
375.2142945456922,498.5839510690496,454.8193957160300,692.5900878906250,1,16.7581081390381,22.0942516326904
1907.2559339330182,1348.0605311747750,980.6780034965352,574.5444946289063,1,15.2021780014038,48.9679489135742
1007.6138632040346,1089.7963981207465,990.5180134803362,1539.1125488281250,1,35.0322151184082,18.8893756866455
99.6001852602483,1630.4862787546510,1158.9075591828791,1734.9802246093750,1,5.0079355239868,1.0409013032913
1744.2518486549675,1046.1540958321980,321.5673837708419,2116.3395996093750,1,24.3073024749756,9.5870246887207
436.8898235280415,1492.2675456827185,1211.2532658215418,353.6515502929688,1,16.4859676361084,34.3645858764648
1947.5971742052311,1668.2939311402911,1075.9464840076323,1632.8043212890625,1,4.3747081756592,16.2378902435303
1384.4143163079450,987.9420571553559,1013.1378304521347,414.5054626464844,1,17.2538452148438,53.2800254821777
863.3916983886412,1893.1927470892567,1192.5590719555341,1434.0677490234375,1,1.1678339242935,16.9294548034668
767.5828707329749,1066.4970730919904,1312.3745668170027,1616.3243408203125,1,6.6914548873901,9.0166482925415
1131.5894386618149,532.6590476412576,931.9367955470702,341.7493286132813,1,10.2195873260498,51.1357765197754
1184.4362399679817,1125.8957832883104,602.8067622093405,363.5395202636719,1,12.1936607360840,8.9100751876831
238.1406084976880,588.7102847705440,751.9396162684270,659.8742675781250,1,16.5617809295654,7.6625709533691
424.8508675316262,477.3786877889974,1022.8576658277262,817.4718627929688,1,10.8844375610352,23.7362861633301
524.1355535398966,1019.8461602753521,59.9474415841127,1809.7506103515625,1,2.5803916454315,9.5519666671753
1682.1049912037970,430.6169666231997,434.0838533677899,1624.5643310546875,1,17.7939643859863,115.5067977905273
1765.7836566419210,1569.4511945987729,123.8100201121886,1245.7685546875000,1,42.3730125427246,2.8800723552704
595.1589155692319,534.4284415259458,206.7008839301955,1863.7073974609375,1,1.9759156703949,63.4664192199707
186.0342202709534,1449.1359459657556,1377.8988766600592,528.7056884765625,1,41.1347961425781,17.3651828765869
589.6488155541590,1013.9273302040534,78.0131120445969,1085.4853515625000,1,38.2552909851074,27.0361080169678
1524.7471879340217,1755.1893467649998,511.0663405596060,434.5256042480469,1,19.1504344940186,15.9257192611694
1518.1696999353435,258.4090412127846,587.9349355223629,304.9440002441406,1,3.4550819396973,28.8909702301025
511.7102421265859,284.8004344635330,361.3900678392650,1014.1941528320313,1,29.7629261016846,47.4806251525879
55.6910426340866,832.0685615843893,102.0064330462305,705.2247924804688,1,35.0952377319336,22.7396678924561
39.8139008643444,700.1669262294444,1456.0373066597247,835.2336425781250,1,3.2397780418396,58.2874565124512
16.9521463032196,797.7390371726818,507.5012468471339,1858.1530761718750,1,6.4718861579895,9.2155971527100
1647.2594427801650,603.2980427780975,1076.4688337439545,483.6604003906250,1,7.2189016342163,47.4608039855957
814.3746018331304,750.5601349582871,683.9452859056858,726.3435668945313,1,2.5144309997559,9.7272691726685
1237.5987694633091,826.3954026688147,952.3616374483745,1033.7260742187500,1,23.5610103607178,0.7900287508965
777.9614437481079,960.5488933609954,531.6591124172184,1825.1319580078125,1,19.1204204559326,35.0143165588379
626.2645848606323,678.8249591187267,1459.3123918162471,852.6291503906250,1,23.2074699401855,31.8864173889160
1989.1442658007663,558.7312971123175,1078.1187483692461,938.9965209960938,1,35.9948539733887,36.2935142517090
953.6059989313685,1778.3945889227055,1363.3296119230886,2050.9079589843750,1,24.0556583404541,3.4936010837555
1906.4998291134330,298.4833327371938,989.0575232742668,968.2943115234375,1,9.6423711776733,74.4795532226563
29.0259589513511,162.7538935429615,660.7019339324868,1358.1378173828125,1,6.8776559829712,47.1823844909668
881.0047357191113,1410.5698198073319,1467.8336241440527,2058.3544921875000,1,0.9703527092934,11.7230682373047
61.1008026573745,1002.5181887538735,136.2382825416010,1461.2292480468750,1,0.3577827811241,33.4499053955078
167.4190181203614,1374.5651334917234,620.8664902605736,405.3498840332031,1,22.9573974609375,79.4343490600586
1902.6664581753569,1868.9149334104766,871.9887454240882,2125.0678710937500,1,9.7693405151367,30.7532539367676
888.5862903697029,1099.0164643771459,432.8912450673457,2277.2331542968750,1,13.4029197692871,14.4564800262451
1181.3782001298084,1691.0572991736726,472.2442964177887,1983.6451416015625,1,9.5218315124512,27.6782131195068
683.1511192118362,968.3310297310105,1475.5526254023348,1085.7905273437500,1,3.9615416526794,13.9863100051880
603.5211585046587,1059.5480342684871,1160.5646419791080,1985.4151611328125,1,4.4557089805603,2.7022500038147
102.6152176639202,917.3319247368649,359.5423131101753,1057.8355712890625,1,19.0613803863525,120.3147201538086
1711.0691649036089,743.8019088165971,1233.7166298572486,357.8020629882813,1,4.7161664962769,78.3325424194336
198.8548748212575,1824.4174976113688,713.0294958078880,412.4912414550781,1,21.8853607177734,4.0782289505005
1726.1017802466417,682.9868781843377,1276.2108315020164,864.1651611328125,1,11.9992437362671,8.4800748825073
14.2782332333178,1931.1787383583867,1418.8346461422427,1223.4290771484375,1,2.8470628261566,31.2649002075195
1781.2736292075060,87.0580165786621,940.4646733922798,1318.2196044921875,1,23.2444896697998,73.3642120361328
114.1884562953133,1338.1103824807203,81.4774229787287,1570.0582275390625,1,26.2714900970459,4.8202352523804
324.3724998401871,1849.9479274910045,793.8294259715813,2044.7432861328125,1,70.7185745239258,14.5000257492065
1547.4340288265137,851.0970954223598,1028.4155118141837,1413.6813964843750,1,22.8903331756592,22.9639873504639
269.2865960423809,1479.3704930459405,351.1676526438969,477.8618774414063,1,3.0365774631500,12.6923723220825
1293.6936973637369,502.8566309621544,278.5366263529004,2122.6875000000000,1,25.8843460083008,8.3452768325806
1431.7404599389647,186.3928467451987,425.1706655679981,624.4117431640625,1,28.7269897460938,52.3961067199707
372.2665993135112,13.5964269525405,646.8559588458280,1965.9443359375000,1,4.3773164749146,2.2294261455536
1133.3414493786572,1638.5439377536723,833.1400611660835,935.1511840820313,1,5.6816778182983,0.3975564837456
600.6008425334171,329.8131219334817,717.5262305564734,1443.9558105468750,1,2.4019112586975,100.4599227905273
1467.4635390552287,520.5660795455669,939.0340574478334,1475.5119628906250,1,1.1035835742950,1.4700529575348
1949.0479168820382,961.6922198025005,503.1941583436931,2284.4355468750000,1,21.9722957611084,56.3554763793945
857.9270881310179,721.6457840907196,1465.8580377008891,1415.7567138671875,1,5.4259262084961,76.0040664672852
577.7213121556331,366.9287836604289,843.0306699067737,1541.6761474609375,1,14.6795854568481,14.7475748062134
318.0397965197944,1568.0384738567900,1066.7619708516320,1021.0302734375000,1,9.1799230575562,76.9498214721680
657.6526347254251,1356.0305242257457,797.7466302516079,760.5853271484375,1,1.9916248321533,4.9048194885254
1346.8199550284737,224.9933497157000,675.4892912375842,761.9281616210938,1,22.3071575164795,17.7456951141357
792.5960896445702,1512.0522106147744,15.6574430872174,838.9569091796875,1,19.8880310058594,28.4873523712158
330.3112277763303,465.3508114061207,789.0369557517795,2141.0595703125000,1,6.7223930358887,5.9189286231995
1648.0774444886233,302.4974839785850,82.4738208717843,1306.4394531250000,1,7.9272794723511,52.5165443420410
849.5197597905037,1199.7966958049055,120.3414148791060,582.4793090820313,1,11.5258502960205,38.4452285766602
95.2433534177307,1125.7290010391323,202.0908929063722,1475.5119628906250,1,13.1911659240723,30.9023094177246
1862.7093381198670,1747.2853975438288,5.1833713174970,519.0008544921875,1,17.9998531341553,70.0188217163086
1972.4690007343484,264.9414350951883,397.6656528755576,1563.8325195312500,1,18.3931674957275,69.3782501220703
429.0676858799807,79.3478795795919,1067.3396211392055,874.7855834960938,1,2.2618260383606,22.8890476226807
467.6404060359906,1673.4313183791780,165.9951415587110,1690.4843750000000,1,40.3115959167480,2.3677074909210
450.0347351109609,1654.9702934353502,174.0672320316124,1742.9150390625000,1,48.1896896362305,75.5252075195313
1248.7754085912109,1558.7312900649713,655.8313778468679,851.8356933593750,1,29.3880195617676,31.3143863677979
1058.5619347558068,1384.5268510786104,659.9137913144908,432.3892822265625,1,18.9381122589111,0.1190332919359
188.6849437812622,305.8538105725664,158.9547447876799,1850.3403320312500,1,12.7264127731323,4.4755029678345
775.0297819437695,1628.0575492180035,130.1344258826317,1472.3380126953125,1,0.7012502551079,19.7475528717041
121.7111352793051,1358.6397594216587,803.2093328203550,915.2531738281250,1,50.4628219604492,20.5475387573242
1718.4454680612730,1582.3220386089781,842.8846796635255,850.1266479492188,1,15.8419017791748,41.7268829345703
1908.6702238856396,1285.6499106475139,1207.9312134619233,1683.2819824218750,1,20.0488567352295,104.2158050537109
1875.5605380863065,1226.6105312729580,1349.7052981676734,1984.8048095703125,1,28.4169120788574,6.5088357925415
582.0404052120507,1847.3251364074656,1294.9976386425637,1536.0606689453125,1,35.5924949645996,64.9162902832031
1377.4125280203375,1508.5015405329618,178.0855749620194,1939.4543457031250,1,7.7537045478821,16.0456352233887
256.1690538954174,1857.2958330283300,394.5362932153708,1283.2453613281250,1,5.2689790725708,32.0684852600098
475.4149644259222,247.0330532463600,899.6150361617318,1413.0100097656250,1,12.3119955062866,8.3603248596191
923.8194740887883,1195.0083757822592,1295.5969706299411,2070.6228027343750,1,7.0754547119141,95.3097839355469
844.4104657525686,1395.6516190043676,32.6510265182447,1366.2557373046875,1,1.0931972265244,25.5528297424316
1755.9598252102003,1575.4126526143505,190.9100173484679,1446.5194091796875,1,68.8127441406250,13.1696920394897
1155.7545435815525,1091.6381414052630,441.3131225645007,986.6665039062500,1,12.8965883255005,14.3862581253052
1661.9217910583106,1145.9333361195095,1251.3551588390940,975.6187744140625,1,4.9292688369751,5.4910850524902
621.4873128067513,1232.2709086142115,323.9953831299748,324.0485839843750,1,56.0765724182129,47.2105293273926
1239.1140617454057,1337.9428897361131,1133.6223343263687,1902.0996093750000,1,10.9110441207886,2.7756857872009
1017.5722821630281,1879.0322871341189,434.8014657642848,589.9868774414063,1,2.4363899230957,45.1957244873047
1770.7627974141881,1132.3884102556719,671.7589317718683,384.2921142578125,1,9.6352872848511,20.3939495086670
1628.9326452479208,1557.3336588538971,489.2696697740309,2054.8142089843750,1,22.3333911895752,9.7747116088867
1464.5607957617217,1717.9359635243404,1373.0089201205210,999.4842529296875,1,0.1687524914742,41.4794120788574
182.6792428500838,179.7888289431874,751.5910050211114,1948.8540039062500,1,58.8795814514160,100.6323547363281
214.8584031949024,899.8567594099173,661.7243322481637,1796.3225097656250,1,10.3833122253418,8.5493240356445
1864.6143164793441,1139.9898705429669,224.0606564513607,1029.5145263671875,1,40.5978927612305,30.0531902313232
885.8760685510359,1334.3228684226142,1246.6295824927113,1416.1229248046875,1,8.6459407806396,44.8688316345215
1654.6495678490792,1117.1921821096721,983.5610247297768,1758.4794921875000,1,11.1152610778809,9.1152648925781
296.9113794835133,563.3846564170136,1295.2151917986018,1942.8114013671875,1,4.6540064811707,3.2520494461060
62.6553834849352,1776.0062202071463,1422.6599294525338,1602.2857666015625,1,21.4129867553711,38.2202758789063
252.6119148461273,1907.1293482501987,1079.1909047571767,1446.5194091796875,1,5.3954734802246,136.5901031494141
1074.2474362022854,1775.4492154925349,116.1023859487260,2065.9841308593750,1,27.0238189697266,6.3941907882690
1396.5967467541539,834.0897978532522,640.0221320688337,890.5941772460938,1,31.6478385925293,2.6279165744781
1742.0704349808084,1327.0399628190323,1469.1480286153669,1948.5488281250000,1,1.9530701637268,25.8538150787354
1638.9150357098133,1939.0995622878438,944.8438587595163,436.1125488281250,1,6.3285732269287,19.4732456207275
24.0085510689060,98.2259012310569,334.4173849951370,2218.6376953125000,1,34.9357757568359,43.3592834472656
1634.3821134207076,581.3948179069902,1135.5433585606122,1446.6414794921875,1,4.5064911842346,13.7103042602539
1262.6683017737932,21.5708329018917,281.3237042389168,2101.7517089843750,1,16.1974925994873,15.3641271591187
848.8359663828606,942.9853539163589,107.4655526293942,1922.4859619140625,1,37.8467254638672,41.2995643615723
1178.7937782062784,796.3985473545491,1465.3999575528305,1691.2167968750000,1,37.9434547424316,30.8559703826904
1429.5629416387492,1041.4088141453797,710.1442942726434,1925.7209472656250,1,8.8463487625122,39.4937515258789
1404.3261278814748,1711.9819817302241,1333.5305217814148,1899.8413085937500,1,2.4532387256622,21.2421054840088
733.0679930208616,1976.1205115439875,290.4354992317320,1045.0178222656250,1,19.3388366699219,19.2681369781494
1109.9047962463408,427.8080695986897,43.8490678371084,2104.9868164062500,1,4.4007496833801,64.0638275146484
359.8992415479297,1979.7828308157746,1252.5815413047264,1344.0382080078125,1,1.5029141902924,8.8558225631714
846.2014259021861,1597.9473585792925,204.7530077824095,1654.4114990234375,1,2.1235432624817,14.5897016525269
279.0139798874529,1689.0601653648698,996.3301878027447,1788.1435546875000,1,10.2322225570679,28.6401634216309
1448.2318073445961,1666.1100317962973,911.7157008105302,1750.1784667968750,1,5.7606964111328,11.8984785079956
1935.1935861260979,100.4917888042330,260.5649832855163,1101.2939453125000,1,11.6891775131226,43.4424705505371
773.3572858324449,697.3093794377210,589.0337830059768,1354.8417968750000,1,6.3775472640991,25.4336376190186
743.3723043435659,974.7810949385763,788.3396323279914,617.6976928710938,1,43.2608680725098,7.5050125122070
1812.9030940870248,1479.7407606998088,772.6262709346735,925.3242187500000,1,26.8609218597412,61.0378189086914
1135.4404352824140,1471.4482383490301,787.2741707508121,2213.1442871093750,1,11.1639223098755,104.4992370605469
852.1082337685863,993.4468885487336,406.8947729182481,1220.8654785156250,1,17.0495986938477,49.1745338439941
537.2760081607001,710.7682678647836,1237.3709897289566,2075.3837890625000,1,25.2170810699463,34.9939804077148
772.2768754532017,220.0297299476390,361.4204131643006,1405.0751953125000,1,22.1881179809570,38.6197395324707
1389.1306658648707,845.2280625597150,536.7814822935499,2157.2343750000000,1,7.9757199287415,9.4042825698853
461.1824314542098,1120.5528454524015,1419.5324316722865,1414.0476074218750,1,28.3769912719727,43.7201271057129
1014.5553038203592,1012.2547299710376,88.7344422273385,891.7539062500000,1,4.8386940956116,82.6813125610352
801.3676584779400,1644.8174084324387,190.1341896566073,349.7451782226563,1,4.6630420684814,12.5948677062988
240.2615126237866,704.5485569498010,742.7673255522777,394.9736022949219,1,4.7316732406616,47.2802009582520
1385.5573834426327,1583.2778376227880,1437.1013295367834,1723.1390380859375,1,18.0206851959229,6.4504399299622
1879.8981079338073,1220.7544827397699,314.0960966904813,2182.4426269531250,1,2.0540401935577,106.0530166625977
297.0084062077209,1924.5142281364183,189.3924206831230,1968.7520751953125,1,35.4141616821289,7.4185185432434
189.3482764216210,603.0895312126968,405.1559488801926,631.6141357421875,1,42.7847404479980,30.8038253784180
805.2367254157464,166.7625053497686,1402.3722962895206,1033.6650390625000,1,3.3086006641388,4.0821037292480
122.1574753965794,1464.0162142054530,123.2138703758114,2287.6706542968750,1,0.9855058193207,63.2958755493164
1880.6965754017576,1410.4046822783894,1232.6378485674932,1249.9801025390625,1,21.0748863220215,24.5807838439941
650.0780866988138,596.3000271802074,253.1647435997816,876.6166992187500,1,10.3689088821411,81.3260650634766
454.1778309636070,1292.9526393061692,760.3350713911660,1395.7976074218750,1,5.6609783172607,45.3815155029297
1738.8809356087302,1504.3760281260729,443.5971979466507,1819.5166015625000,1,5.4046778678894,95.6267776489258
1126.7124208327289,602.4429479483058,1083.7222913842736,1068.7612304687500,1,2.7678790092468,8.6822328567505
1111.6353140777612,1667.3168111336242,872.4602665841732,1368.3309326171875,1,5.4252152442932,82.5078887939453
459.0193818488446,1952.4918656929869,944.7728574274037,502.0935668945313,1,15.4578227996826,39.6489334106445
1997.8752359897942,1438.6018014644203,1139.8173623616703,1478.8690185546875,1,51.5155258178711,16.7688655853271
894.2749464341548,1861.2710426680144,1260.3891746310512,987.8872070312500,1,1.2396389245987,1.8161123991013
861.6270871304413,1747.5516108265394,587.8262036660817,1423.4473876953125,1,3.7489869594574,48.6384925842285
862.6994395736294,1618.7772095509445,850.1006525059083,1387.9238281250000,1,27.0272712707520,63.5933990478516
399.2878838637749,229.3605420541369,116.3727311259268,2203.6835937500000,1,19.7208042144775,25.0925846099854
773.1822988205353,1998.4605195639751,267.9213459434573,1061.3757324218750,1,4.0673561096191,6.6923689842224
1150.7345768612336,668.2739307713207,639.4854398972595,1275.1274414062500,1,33.1093635559082,10.8911819458008
217.1437418020059,1306.7822311903278,756.6590623750184,1166.7867431640625,1,7.3626303672791,75.6308975219727
1501.9955158485971,97.1678172148236,830.4143865383561,2212.5339355468750,1,0.4157587587833,44.0837478637695
623.0797777703569,8.5826871050060,1469.4724080766548,955.1102905273438,1,26.9414329528809,14.0249595642090
1937.3004325793072,1201.5829757092949,224.7811351567482,1962.2211914062500,1,13.5054445266724,52.1104812622070
1718.4610468130425,7.4256001796428,1349.6047881481277,1614.2490234375000,1,3.5496397018433,41.1599006652832
1873.4324705380518,1438.1949738726794,537.6193312429924,504.5350646972656,1,28.9750232696533,4.3201031684875
729.7309833099733,1670.8664835467932,445.9776734035576,1695.7945556640625,1,8.7142677307129,8.3752069473267
1248.2433015532533,1734.4975340175101,7.7467358711483,1331.1594238281250,1,7.1801238059998,57.2532310485840
372.1415141396836,1526.8516838351161,412.7483251250072,1410.4464111328125,1,32.6072959899902,0.8195444345474
1749.9877086618699,131.2963712285822,1274.9510335241812,1379.5617675781250,1,2.5471231937408,44.8726921081543
1998.2545971165096,1569.3299210656014,1082.6362474002069,361.8305053710938,1,25.3082199096680,53.8360900878906
715.9509536921498,571.2469115825185,1266.0838462569059,1214.0294189453125,1,5.4514679908752,12.3010940551758
429.9111888398752,128.9005580947299,1292.1477209429866,857.0238037109375,1,1.3997273445129,26.5215930938721
1149.4134034410113,1013.3986513812827,605.7018685007843,1539.4177246093750,1,9.9994087219238,2.0623962879181
578.8016576764618,1998.6848685581388,388.1141133898456,1027.9274902343750,1,14.3241128921509,11.9232740402222
1322.3684119783713,1415.8969271002843,1116.2796257427201,1844.9079589843750,1,4.9792566299438,38.2645225524902
1111.7227718815955,670.4830876469067,1135.3033486131314,877.7153930664063,1,0.9536904096603,10.6906375885010
1032.4659788629190,665.4784863032795,861.2659705670474,334.8521423339844,1,21.1218471527100,27.5709495544434
322.6009489464167,322.5107968838275,181.4473756446249,2275.9514160156250,1,12.8869037628174,46.9933929443359
579.7525530342417,838.0245942774131,1163.8434188761048,576.8028564453125,1,24.2668666839600,17.7427539825439
616.5924122184741,1876.5461278056416,710.5595654051957,1117.5909423828125,1,20.7670059204102,7.7079467773438
623.2480682722277,851.1704601945413,875.7588590278477,718.5308227539063,1,16.5886192321777,38.0382804870605
1330.7987491695485,1227.5414732726949,58.4083839243540,584.7377319335938,1,8.0815706253052,16.8375587463379
1526.4176610550769,1348.4835493537705,309.2867377649511,962.1295776367188,1,8.3580713272095,40.7870063781738
589.5231706868300,1259.6724198798802,1187.0023735263806,951.8143310546875,1,16.1668720245361,95.2076339721680
1917.1249899333684,1477.3233642797450,553.5362775054973,1467.9433593750000,1,18.1329631805420,13.2233943939209
403.8537637159151,975.9222684514523,670.3330292921205,1911.9266357421875,1,7.8664069175720,43.3973770141602
1445.6014672613078,1943.1109643584591,97.6535354855357,1258.4643554687500,1,4.9673676490784,31.7497806549072
1100.6542389217252,1286.5944802166603,1117.8907167723639,2217.7221679687500,1,1.2754935026169,2.1474130153656
533.7418985589512,1077.9567693883487,482.3920359688319,2240.5500488281250,1,30.3330783843994,8.7162132263184
903.8518379021601,866.2788890954697,824.2564570643117,778.2860717773438,1,7.4368062019348,19.4839286804199
1774.6320775340689,1356.3642591741286,459.6774297742148,423.4168701171875,1,41.8408966064453,1.6602011919022
1259.3084734128547,1149.1845118749882,1246.9263989903143,1481.1273193359375,1,3.9432742595673,25.7543010711670
1866.7757106723316,1874.4471131166003,711.9603038838530,2022.9530029296875,1,22.3953723907471,8.1665611267090
1295.8266336303286,1172.1211229477024,1044.9233811927027,1170.1437988281250,1,10.2606754302979,31.4452800750732
946.4329726289540,94.1737902299701,682.3437249748717,659.4470214843750,1,4.5709857940674,11.8365936279297
649.2685087906257,1244.0617233574417,256.6709427436121,651.3291015625000,1,1.4533607959747,6.1948304176331
250.9903256324961,245.5580309457686,192.5016022217475,1661.9189453125000,1,28.5860710144043,16.9409160614014
263.4998626667074,221.4117862483596,169.7592089602344,1872.5577392578125,1,18.2880535125732,48.1413002014160
232.3435163426618,217.7556688131352,207.8646198919645,554.7684936523438,1,3.1714713573456,4.8784079551697
248.9547410504471,275.9269997253334,184.6522415845210,1376.9371337890625,1,7.9413547515869,5.5942792892456
226.1391033661916,253.1693472090823,210.4556413464766,869.3533325195313,1,13.1509637832642,70.3534774780273
217.2856837672048,297.0030823694570,202.3895992919706,1819.2724609375000,1,14.1971292495728,38.7494506835938
231.3180944242683,223.9082003234962,205.6306649983215,1777.1568603515625,1,22.7075920104980,11.6241064071655
210.9591967528306,274.2851039155248,207.9317606128117,1214.0904541015625,1,13.9117813110352,2.1458332538605
229.7555467390973,232.8562273018586,161.2079226050600,770.8395385742188,1,8.6232395172119,11.5969181060791
211.3071077608570,228.9376506851405,206.0914944914090,2098.4558105468750,1,17.9955463409424,5.3923754692078
239.6313364055299,272.5028229621265,176.0063478499710,320.6305236816406,1,55.5809097290039,23.0123672485352
246.8703268532365,232.6639606921598,211.9083223975341,1444.3830566406250,1,9.3800134658813,4.1528954505920
248.1490524002808,283.6817529831843,199.8229926450392,485.9797973632813,1,3.6948337554932,136.7683868408203
194.9827570421461,261.0980559709463,214.8380993072298,1770.0766601562500,1,6.2294368743896,19.1018295288086
255.0706503494369,274.6787926877651,214.8808252204962,748.5000000000000,1,3.8227689266205,15.6428594589233
215.6254768517106,211.7831965086825,194.7416608172857,2148.5671386718750,1,19.7601089477539,47.9047012329102
209.9795525986511,254.4969023712882,156.5080721457564,1460.9851074218750,1,31.2293376922607,37.2379951477051
203.2380138554033,244.1541795098727,213.8737144077883,430.4971313476563,1,27.1193523406982,60.7846832275391
199.7680593279824,224.1065706350902,190.1730399487289,1468.1264648437500,1,31.6542911529541,97.9871063232422
265.6666768395032,275.0450148014771,162.6941740165410,1515.6132812500000,1,9.5586500167847,35.7030677795410
239.3719290749840,247.2243415631580,193.6338389233070,1895.2635498046875,1,4.7125530242920,16.4986801147461
250.6454664754173,213.3091219824824,175.2616962187567,2181.4660644531250,1,20.8011360168457,3.7356655597687
248.6220892971587,241.4593951231422,206.4485610522782,1074.0104980468750,1,7.4573121070862,0.2793938219547
234.4340342417676,274.8649555955687,178.9819025238807,2063.8476562500000,1,6.9332785606384,15.7124614715576
241.8012024292734,262.9871517075106,169.0115054780725,328.9315490722656,1,8.2677164077759,13.9792098999023
254.2710654011658,262.3706778160955,168.1875057222205,2118.2316894531250,1,14.0465469360352,1.4348254203796
237.3119296853542,213.8004699850459,185.0337229529710,1132.2397460937500,1,4.2169423103333,14.5156078338623
257.3900570696127,235.4503006073184,210.0497451704459,1537.2813720703125,1,34.7971687316895,19.9019260406494
255.6749168370617,240.9436323129978,181.4355906857509,1202.5544433593750,1,27.7752532958984,10.2000913619995
241.6211432233650,230.8297982726524,153.7125766777551,900.7873535156250,1,24.3875217437744,4.4413127899170
213.1992553483688,269.0206610309152,196.6216010010071,718.8359985351563,1,17.0571250915527,35.4984474182129
213.2541886654256,228.8460951567126,148.1276894436476,540.9130859375000,1,37.4366645812988,8.6476135253906
182.7997680593280,246.8886379589221,167.3543504135258,2201.9746093750000,1,11.4439048767090,34.4079627990723
244.7523422956023,215.5613879818110,212.8666035950804,1968.5689697265625,1,0.1164549738169,18.4956779479980
258.4246345408490,227.0638142033143,206.0243537705618,1024.3873291015625,1,3.0962488651276,43.6867790222168
198.5198522904141,271.5231788079470,200.8301034577471,1976.6868896484375,1,2.0344078540802,6.8710680007935
204.1627246925260,229.5144505142369,174.0012817773980,2201.1201171875000,1,4.9865589141846,24.3149986267090
232.4655903805658,280.5230872524186,227.0455030976287,962.4957885742188,1,1.9739779233932,0.1966518014669
208.6367381817072,238.4166997283853,165.2668843653676,1337.8123779296875,1,31.1879386901855,0.4591429829597
235.8256782738731,267.9677724539933,181.6095461897641,341.8103637695313,1,22.2338466644287,25.3799591064453
217.6427503280740,261.6504409924619,186.6389965514084,1614.6763916015625,1,0.2894715666771,6.5662016868591
232.1085238196966,277.7031769768365,218.9550462355419,1916.9316406250000,1,7.4331736564636,17.0524826049805
215.6987212744530,268.1081575975829,178.4386730552080,721.3995971679688,1,70.7901306152344,18.7928142547607
234.1013824884793,256.8865016632587,223.9326151310770,1954.7746582031250,1,40.1186790466309,2.3535790443420
247.7492599261452,235.5388042847987,183.6176641132847,1973.5739746093750,1,5.2785172462463,19.2929077148438
223.2123783074435,246.9313638721885,162.4500259407330,1782.9554443359375,1,3.4132337570190,39.7009468078613
246.7604602191229,246.2965788750877,209.0884121219520,689.5993041992188,1,2.7438125610352,0.0262602269650
258.4521011993774,249.0462965788751,159.4805749687185,2167.1833496093750,1,3.1556341648102,28.8791351318359
227.7871028778954,226.1177404095584,179.6105838190863,535.4808349609375,1,10.5964002609253,23.4732036590576
255.6352427747429,231.2265388958403,201.9959105197302,1847.0443115234375,1,2.9903421401978,14.1082906723022
239.5184179204687,267.8304391613514,143.1104464857936,1204.7517089843750,1,3.1639070510864,29.2159252166748
266.3777581102939,277.6940214239937,168.9962462233345,628.7453613281250,1,4.0820188522339,10.7583055496216
220.9051789910581,262.5202185125278,152.4338511307108,743.3118896484375,1,9.6880407333374,93.8040313720703
244.2335276345103,264.2933439130833,155.8244575334941,1605.9479980468750,1,0.8282957673073,7.3283882141113
261.5436262092959,243.4430982390820,170.5465865047151,1300.7629394531250,1,43.6185035705566,24.4379692077637
233.1858272041993,244.0443128757591,177.2911770989105,664.0247802734375,1,10.2576074600220,35.8281707763672
271.9443342387158,246.9252601702933,172.7469710379345,343.2142028808594,1,2.4131400585175,59.0613136291504
238.5631885738700,242.2742393261513,188.6349070711386,1661.6137695312500,1,3.9661974906921,28.9071159362793
206.2746055482650,241.9141209143345,217.0598467970824,649.3759155273438,1,7.9559540748596,6.2163739204407
247.8713339640492,269.7103793450728,225.7850886562700,1825.3150634765625,1,30.0876884460449,42.0337524414063
245.9913937803278,278.2403027436140,182.4182866908780,1976.1986083984375,1,7.2337455749512,38.2974967956543
206.8208868678853,221.3538010803552,172.7561265907773,1197.9155273437500,1,3.7799069881439,53.8744697570801
237.1501815851314,295.1597643971069,200.6042664876247,1379.5617675781250,1,2.4346435070038,52.8105430603027
225.0221259193701,209.7231971190527,195.0498977629933,1683.9533691406250,1,0.6750621795654,2.4075510501862
226.9234290597247,227.5307473982971,215.4423657948546,2053.7155761718750,1,6.1149868965149,3.8743638992310
243.5102389599292,218.6162907803583,165.1844843897824,602.1942749023438,1,5.7380170822144,2.8094437122345
238.6059144871364,210.3610339671010,178.8354136783959,463.0909118652344,1,13.5420436859131,64.5647583007813
221.0943937498093,272.2983489486373,175.6065553758355,1922.7302246093750,1,14.0848474502563,54.3025093078613
236.3383892330698,285.5952635273293,183.9442121646779,732.0810546875000,1,14.9586915969849,115.4931716918945
255.1072725608081,247.0351268044069,196.8199713126011,793.3622436523438,1,28.3045997619629,41.7591438293457
223.5511337626270,274.4346446119571,204.5655690176092,1980.2880859375000,1,33.4103317260742,9.3525400161743
216.1015655995361,242.6313058870205,232.7921384319590,790.6155395507813,1,6.9780311584473,46.8262519836426
184.2616046632282,235.9324930570391,203.1617175817133,796.1699218750000,1,5.6566371917725,23.4769344329834
232.0993682668538,237.6445814386425,184.9208044679098,1820.0659179687500,1,15.8492431640625,52.6287727355957
205.3346354564043,213.1717886898404,168.9748832667013,1575.3074951171875,1,5.8974266052246,90.9134445190430
215.3233436078982,225.7972960600604,213.8218329416791,984.4080810546875,1,9.4315662384033,22.9030570983887
218.0608539078951,238.2305368205817,219.5135349589526,2266.4296875000000,1,25.7459144592285,15.0484876632690
207.2176274910733,296.4781640064699,184.4996490371410,2290.2341308593750,1,0.0604822598398,5.9131865501404
192.5565355388043,251.1612292855617,183.4925382244331,417.2521057128906,1,36.7747459411621,27.1221961975098
270.9402752769554,246.4308603167821,186.9563890499588,1017.6732788085938,1,60.7030296325684,163.1645050048828
201.1780144657735,258.4704123050630,218.5857722708823,540.0585937500000,1,9.9356575012207,18.4711112976074
224.9702444532609,215.2897732474746,160.8630634479812,2195.9929199218750,1,4.9616742134094,19.3149528503418
217.9784539323099,252.5772881252479,222.5714896084475,976.1680908203125,1,2.1945619583130,6.7016873359680
264.3360698263497,252.7024140140996,156.4500869777520,1141.2731933593750,1,14.8134737014771,31.2462711334229
234.6232490005188,261.6931669057283,160.2221747489853,881.6217651367188,1,14.9334421157837,1.3720922470093
205.0843836787011,288.0153813287759,196.9512009033479,694.7874145507813,1,6.1311268806458,62.3132209777832
216.0466322824793,254.7837763603626,231.3119907223731,1928.8948974609375,1,3.5625612735748,31.0106163024902
265.5323953978088,240.7696768089847,163.2892849513230,1876.5861816406250,1,0.6584233045578,17.7956390380859
263.0237739188818,243.7238685262612,170.5313272499771,1071.4468994140625,1,3.3304538726807,20.6796131134033
235.7799005096591,263.5273293252358,182.3114719077120,1410.8737792968750,1,7.5900263786316,16.2645072937012
224.4514297921689,273.1406598101748,141.7767876216926,505.7557983398438,1,2.5515377521515,15.4734106063843
199.6032593768120,232.8836939603870,163.0726035340434,2224.6804199218750,1,49.3683166503906,48.0851554870605
231.2417981505783,258.6382641071810,173.9768669698172,1028.9650878906250,1,7.7063446044922,24.5632534027100
210.2481154820399,247.6790673543504,171.2942899868770,817.7160034179688,1,1.2116097211838,12.9010305404663
247.1022675252541,234.3363750114444,218.7292092654195,1591.6654052734375,1,9.5547409057617,32.0461616516113
235.3617969298379,269.5394756920072,188.2320627460555,1614.1881103515625,1,2.7585990428925,23.4223327636719
226.3496810815760,273.4885708182013,169.3288979766228,1219.5837402343750,1,5.9798154830933,2.9721052646637
246.0219122898038,219.9896237067782,187.7742851039155,2266.1245117187500,1,2.9560379981995,11.6018657684326
230.4605243079928,236.6801965392010,151.9425031281472,1893.0661621093750,1,10.0047645568848,27.9455757141113
240.8459730826746,224.8695333719901,215.1890621662038,649.1928100585938,1,0.4604174494743,33.5117454528809
980.2545243690299,241.8683431501206,381.7377239295633,659.9353027343750,1,12.6091747283936,25.3167018890381
972.0969267860959,250.0564592425306,384.1853083895382,1218.5461425781250,1,9.9118556976318,101.9355697631836
975.8384960478531,246.6658528397473,340.7208471938230,484.2707519531250,1,7.4289369583130,5.4701771736145
969.0054017761773,195.5565050202948,391.9370097964415,721.0944213867188,1,20.4140377044678,4.7881965637207
988.4151738029116,253.6301767021699,370.7235938596759,333.4482727050781,1,3.0720589160919,18.3373470306396
1017.4474318674278,239.8968474379711,359.5690786461989,2253.6118164062500,1,13.5404281616211,22.8120231628418
1008.7862788781397,261.4215521713920,366.2282174138615,2045.0483398437500,1,31.3129806518555,58.4816360473633
1038.6089663380842,243.0097354045229,376.9402142399365,1545.6434326171875,1,2.8386082649231,5.4216966629028
989.0377513962219,198.2909634693442,338.9324625385296,827.8481445312500,1,30.5103054046631,37.4670867919922
984.9635303811763,179.0551469466232,347.8560747093112,1401.6571044921875,1,4.8246598243713,74.8841323852539
1007.1932126834927,193.7101351969970,406.6499832148198,2101.8127441406250,1,25.7860946655273,2.6492166519165
1009.8849452192757,224.6955778679770,410.7303079317606,688.8668212890625,1,48.2851295471191,47.5234718322754
962.9535813470872,203.0365916928617,347.8560747093112,2008.4871826171875,1,5.3398027420044,52.6042594909668
1030.6711020233774,225.9071626941740,361.2079226050600,376.1741943359375,1,5.9712648391724,22.2066955566406
1014.7068697164832,241.6241950743126,340.3057954649495,585.6532592773438,1,1.5489437580109,4.2389712333679
959.4561601611379,228.8705099642933,361.2048707541124,2143.5009765625000,1,30.6058597564697,2.1052041053772
973.7846003601185,229.4076357310709,403.8392284920805,1539.1735839843750,1,29.8930511474609,38.3261795043945
971.5536973174231,214.7007660145879,397.6073488570818,2261.1193847656250,1,14.1742591857910,232.0487823486328
966.4479506820888,244.8896755882443,354.8966948454238,1019.3823242187500,1,12.8327579498291,91.1907653808594
1023.8166447950684,205.9938352610858,380.1232947782830,2018.2531738281250,1,16.0126495361328,12.6018772125244
980.7153538621175,209.7079378643147,394.7202978606525,2062.9321289062500,1,39.8414344787598,13.4769420623779
999.2767113254190,213.0863368633076,409.0060121463667,1218.1799316406250,1,2.6955740451813,64.8623657226563
1028.2998138370924,224.8664815210425,383.6298715170751,1645.1337890625000,1,22.0754146575928,61.0792312622070
1035.5937376018558,199.6978667561876,377.8740806299020,403.8850097656250,1,8.9262161254883,33.7490882873535
988.8668477431563,252.4887844477676,390.2066103091525,1855.5894775390625,1,7.1072902679443,27.9990196228027
1014.7282326731164,190.8200323496200,364.0491958372753,1776.3634033203125,1,22.1035728454590,13.3929357528687
966.9606616412856,241.9934690389721,349.4552446058535,1806.8209228515625,1,11.0986089706421,38.2810821533203
972.5302896206550,180.0561540574359,356.4683980834376,1476.6716308593750,1,4.0947995185852,41.4024467468262
1014.9998474074528,254.8265022736290,391.5097506637776,764.4916992187500,1,77.1675949096680,10.9189214706421
984.2432935575428,216.8279061250649,367.8395947141942,2265.5141601562500,1,6.9025263786316,80.9952926635742
1003.6408581804866,257.2832422864468,369.1549424726097,1898.6206054687500,1,15.8205194473267,65.3585357666016
